  6.0181260e+005  6.7440326e+006  2.3680000e+003  1.5237628e+001  1.8614663e+002  1.7361111e-001
  6.0184260e+005  6.7440326e+006  2.3660000e+003  1.6656590e+001  1.9287500e+002  1.0416667e-001
  6.0187260e+005  6.7440326e+006  2.3630000e+003  1.6759947e+001  1.9442077e+002 -6.9444444e-003
  6.0190260e+005  6.7440326e+006  2.3610000e+003  1.5639215e+001  1.9465675e+002 -4.8611111e-002
  6.0193260e+005  6.7440326e+006  2.3590000e+003  1.4938380e+001  1.9447029e+002 -8.3333333e-002
  6.0196260e+005  6.7440326e+006  2.3570000e+003  1.4663911e+001  1.8916235e+002  2.7777778e-002
  6.0199260e+005  6.7440326e+006  2.3570000e+003  1.4506372e+001  1.9493142e+002  3.1250000e-001
  6.0202260e+005  6.7440326e+006  2.3540000e+003  1.5345950e+001  2.1006858e+002  3.8888889e-001
  6.0205260e+005  6.7440326e+006  2.3490000e+003  1.5439987e+001  2.1392980e+002  2.9166667e-001
  6.0208260e+005  6.7440326e+006  2.3450000e+003  1.4710076e+001  2.1596052e+002  2.9166667e-001
  6.0211260e+005  6.7440326e+006  2.3400000e+003  1.3900669e+001  2.2500000e+002  2.4305556e-001
  6.0214260e+005  6.7440326e+006  2.3340000e+003  1.2048282e+001  2.3134019e+002  8.3333333e-002
  6.0217260e+005  6.7440326e+006  2.3290000e+003  9.7198677e+000  2.2894519e+002 -5.5555556e-002
  6.0220260e+005  6.7440326e+006  2.3260000e+003  7.8326257e+000  2.1513419e+002 -1.1805556e-001
  6.0223260e+005  6.7440326e+006  2.3250000e+003  8.0010430e+000  1.9197613e+002 -1.1805556e-001
  6.0226260e+005  6.7440326e+006  2.3250000e+003  1.1102188e+001  1.7634778e+002 -1.1805556e-001
  6.0229260e+005  6.7440326e+006  2.3260000e+003  1.4920965e+001  1.7009582e+002 -9.7222222e-002
  6.0232260e+005  6.7440326e+006  2.3270000e+003  1.5439987e+001  1.6869007e+002 -2.7777778e-002
  6.0235260e+005  6.7440326e+006  2.3290000e+003  1.1818506e+001  1.6734744e+002  8.3333333e-002
  6.0238260e+005  6.7440326e+006  2.3300000e+003  7.8609587e+000  1.7480557e+002  1.9444444e-001
  6.0241260e+005  6.7440326e+006  2.3290000e+003  7.8041847e+000  1.9953665e+002  1.5277778e-001
  6.0244260e+005  6.7440326e+006  2.3270000e+003  9.3218357e+000  2.0396249e+002 -1.3888889e-002
  6.0247260e+005  6.7440326e+006  2.3250000e+003  8.9848769e+000  1.9843495e+002 -5.5555556e-002
  6.0250260e+005  6.7440326e+006  2.3240000e+003  8.4065836e+000  2.0150143e+002 -4.8611111e-002
  6.0253260e+005  6.7440326e+006  2.3220000e+003  8.3801917e+000  1.8813010e+002 -8.3333333e-002
  6.0256260e+005  6.7440326e+006  2.3230000e+003  1.0101066e+001  1.6921570e+002  4.1666667e-002
  6.0259260e+005  6.7440326e+006  2.3240000e+003  1.0683508e+001  1.7365981e+002  5.5555556e-002
  6.0262260e+005  6.7440326e+006  2.3240000e+003  9.5777065e+000  1.5977514e+002 -8.3333333e-002
  6.0265260e+005  6.7440326e+006  2.3280000e+003  9.3689156e+000  1.3500000e+002 -8.3333333e-002
  6.0289260e+005  6.7440326e+006  2.4600000e+003  1.9630415e+001  1.2740536e+002  3.6805556e-001
  6.0292260e+005  6.7440326e+006  2.4690000e+003  1.7491808e+001  1.4851657e+002  4.7222222e-001
  6.0295260e+005  6.7440326e+006  2.4710000e+003  1.2810077e+001  1.6621840e+002  2.1180556e-001
  6.0298260e+005  6.7440326e+006  2.4730000e+003  1.1175141e+001  1.5235402e+002 -1.2500000e-001
  6.0301260e+005  6.7440326e+006  2.4760000e+003  1.3298603e+001  1.3928915e+002 -1.4583333e-001
  6.0304260e+005  6.7440326e+006  2.4820000e+003  1.4251518e+001  1.3899091e+002  4.1666667e-002
  6.0307260e+005  6.7440326e+006  2.4860000e+003  1.2334204e+001  1.4903624e+002  1.4583333e-001
  6.0310260e+005  6.7440326e+006  2.4890000e+003  1.0606834e+001  1.5914554e+002  5.5555556e-002
  6.0313260e+005  6.7440326e+006  2.4900000e+003  8.6913016e+000  1.6255281e+002 -1.2847222e-001
  6.0316260e+005  6.7440326e+006  2.4910000e+003  7.2895368e+000  1.4967639e+002 -2.5694444e-001
  6.0319260e+005  6.7440326e+006  2.4940000e+003  8.0770006e+000  1.3976364e+002 -1.9444444e-001
  6.0073260e+005  6.7440626e+006  2.5470000e+003  2.3132183e+001  2.9055605e+002 -2.5000000e-001
  6.0076260e+005  6.7440626e+006  2.5350000e+003  2.1322423e+001  2.8611342e+002 -2.2916667e-001
  6.0079260e+005  6.7440626e+006  2.5250000e+003  1.9610609e+001  2.8078430e+002 -1.1111111e-001
  6.0082260e+005  6.7440626e+006  2.5150000e+003  1.9792809e+001  2.7531455e+002 -6.9444444e-003
  6.0085260e+005  6.7440626e+006  2.5040000e+003  1.9719214e+001  2.6866778e+002 -9.0277778e-002
  6.0088260e+005  6.7440626e+006  2.4930000e+003  1.7676494e+001  2.5869007e+002 -2.5000000e-001
  6.0091260e+005  6.7440626e+006  2.4850000e+003  1.4321218e+001  2.4385316e+002 -1.7361111e-001
  6.0094260e+005  6.7440626e+006  2.4800000e+003  1.4513577e+001  2.3682149e+002  4.1666667e-002
  6.0097260e+005  6.7440626e+006  2.4720000e+003  1.5809441e+001  2.3701148e+002 -2.0833333e-002
  6.0100260e+005  6.7440626e+006  2.4650000e+003  1.5196769e+001  2.2873140e+002 -2.4305556e-001
  6.0103260e+005  6.7440626e+006  2.4590000e+003  1.6054316e+001  2.1438034e+002 -3.5416667e-001
  6.0106260e+005  6.7440626e+006  2.4540000e+003  1.9603175e+001  2.0866396e+002 -2.7777778e-001
  6.0109260e+005  6.7440626e+006  2.4470000e+003  2.3488972e+001  2.1681496e+002 -5.3472222e-001
  6.0112260e+005  6.7440626e+006  2.4380000e+003  1.6260205e+001  2.1686990e+002 -5.6597222e-001
  6.0115260e+005  6.7440626e+006  2.4370000e+003  1.6386896e+001  1.8732641e+002 -4.5833333e-001
  6.0118260e+005  6.7440626e+006  2.4370000e+003  2.0307500e+001  1.8776517e+002 -1.5277778e-001
  6.0121260e+005  6.7440626e+006  2.4350000e+003  2.4602926e+001  1.9530085e+002 -1.9444444e-001
  6.0124260e+005  6.7440626e+006  2.4310000e+003  2.8031779e+001  1.9730053e+002 -4.3750000e-001
  6.0145260e+005  6.7440626e+006  2.3730000e+003  1.2485118e+001  1.9979888e+002 -8.6805556e-001
  6.0148260e+005  6.7440626e+006  2.3690000e+003  1.0679688e+001  1.6396766e+002 -7.4305556e-001
  6.0151260e+005  6.7440626e+006  2.3740000e+003  1.1499466e+001  1.4500798e+002 -2.3263889e-001
  6.0154260e+005  6.7440626e+006  2.3790000e+003  1.1630105e+001  1.5862938e+002  2.0138889e-001
  6.0157260e+005  6.7440626e+006  2.3800000e+003  1.2909470e+001  1.7895837e+002  2.5000000e-001
  6.0160260e+005  6.7440626e+006  2.3790000e+003  1.3964881e+001  1.8867317e+002  1.3194444e-001
  6.0163260e+005  6.7440626e+006  2.3770000e+003  1.4397796e+001  1.9313402e+002 -6.9444444e-003
  6.0166260e+005  6.7440626e+006  2.3750000e+003  1.4039988e+001  1.9056101e+002 -1.3194444e-001
  6.0169260e+005  6.7440626e+006  2.3740000e+003  1.3378046e+001  1.8301279e+002 -1.5277778e-001
  6.0172260e+005  6.7440626e+006  2.3740000e+003  1.3142105e+001  1.7795459e+002 -6.2500000e-002
  6.0175260e+005  6.7440626e+006  2.3750000e+003  1.3142105e+001  1.7795459e+002  2.7777778e-002
  6.0178260e+005  6.7440626e+006  2.3750000e+003  1.3134022e+001  1.8000000e+002  6.2500000e-002
  6.0181260e+005  6.7440626e+006  2.3750000e+003  1.3593767e+001  1.8197493e+002  1.4583333e-001
  6.0184260e+005  6.7440626e+006  2.3750000e+003  1.4920965e+001  1.8990418e+002  2.4305556e-001
  6.0187260e+005  6.7440626e+006  2.3730000e+003  1.6031952e+001  1.9685840e+002  1.9444444e-001
  6.0190260e+005  6.7440626e+006  2.3700000e+003  1.5887264e+001  1.9790445e+002  6.9444444e-002
  6.0193260e+005  6.7440626e+006  2.3670000e+003  1.5210403e+001  1.9510110e+002  1.3888889e-002
  6.0196260e+005  6.7440626e+006  2.3660000e+003  1.4129503e+001  1.9242594e+002  1.2500000e-001
  6.0199260e+005  6.7440626e+006  2.3640000e+003  1.3121887e+001  2.0427444e+002  2.7777778e-001
  6.0202260e+005  6.7440626e+006  2.3600000e+003  1.3298603e+001  2.2071085e+002  2.6388889e-001
  6.0205260e+005  6.7440626e+006  2.3550000e+003  1.2946519e+001  2.2646880e+002  2.2916667e-001
  6.0208260e+005  6.7440626e+006  2.3500000e+003  1.2726576e+001  2.3249586e+002  2.8472222e-001
  6.0211260e+005  6.7440626e+006  2.3440000e+003  1.3519693e+001  2.4210273e+002  1.8750000e-001
  6.0214260e+005  6.7440626e+006  2.3370000e+003  1.1994660e+001  2.4444003e+002 -4.1666667e-002
  6.0217260e+005  6.7440626e+006  2.3330000e+003  8.9356314e+000  2.3799462e+002 -1.8750000e-001
  6.0220260e+005  6.7440626e+006  2.3290000e+003  6.4231509e+000  2.1899099e+002 -3.3333333e-001
  6.0223260e+005  6.7440626e+006  2.3280000e+003  6.7213693e+000  1.7186990e+002 -4.0972222e-001
  6.0226260e+005  6.7440626e+006  2.3290000e+003  1.1276401e+001  1.5397041e+002 -2.1527778e-001
  6.0229260e+005  6.7440626e+006  2.3330000e+003  1.4073634e+001  1.5855226e+002  1.6666667e-001
  6.0232260e+005  6.7440626e+006  2.3360000e+003  1.3166321e+001  1.7591438e+002  3.0555556e-001
  6.0235260e+005  6.7440626e+006  2.3340000e+003  1.0744416e+001  1.8884181e+002  8.3333333e-002
  6.0238260e+005  6.7440626e+006  2.3330000e+003  8.3801917e+000  1.8813010e+002 -6.2500000e-002
  6.0241260e+005  6.7440626e+006  2.3330000e+003  8.1861598e+000  1.9000798e+002  3.7947076e-017
  6.0244260e+005  6.7440626e+006  2.3320000e+003  9.4274111e+000  1.9752557e+002  3.4722222e-002
  6.0247260e+005  6.7440626e+006  2.3300000e+003  9.8764739e+000  2.0103751e+002 -6.9444444e-003
  6.0250260e+005  6.7440626e+006  2.3280000e+003  9.2089874e+000  2.0590651e+002 -1.1111111e-001
  6.0253260e+005  6.7440626e+006  2.3260000e+003  6.9904943e+000  1.8978241e+002 -1.8055556e-001
  6.0256260e+005  6.7440626e+006  2.3280000e+003  7.1171765e+000  1.5429005e+002  4.8611111e-002
  6.0259260e+005  6.7440626e+006  2.3300000e+003  7.5431501e+000  1.6727564e+002  2.0833333e-001
  6.0262260e+005  6.7440626e+006  2.3290000e+003  7.4540096e+000  1.7083765e+002  2.0833333e-002
  6.0265260e+005  6.7440626e+006  2.3300000e+003  6.3793702e+000  1.5343495e+002 -1.4583333e-001
  6.0292260e+005  6.7440626e+006  2.4790000e+003  9.4623222e+000  1.8000000e+002  3.5069444e-001
  6.0295260e+005  6.7440626e+006  2.4770000e+003  9.2566820e+000  1.7560129e+002 -1.2847222e-001
  6.0298260e+005  6.7440626e+006  2.4770000e+003  1.1082645e+001  1.5070864e+002 -4.3055556e-001
  6.0301260e+005  6.7440626e+006  2.4820000e+003  1.5179706e+001  1.3748955e+002 -2.7083333e-001
  6.0304260e+005  6.7440626e+006  2.4880000e+003  1.5288518e+001  1.4243141e+002  6.9444444e-003
  6.0307260e+005  6.7440626e+006  2.4920000e+003  1.3314535e+001  1.5388609e+002  5.5555556e-002
  6.0310260e+005  6.7440626e+006  2.4940000e+003  1.1927252e+001  1.6514139e+002 -1.3888889e-002
  6.0313260e+005  6.7440626e+006  2.4950000e+003  1.1141162e+001  1.7392754e+002 -1.5972222e-001
  6.0316260e+005  6.7440626e+006  2.4950000e+003  1.0101066e+001  1.6921570e+002 -2.9166667e-001
  6.0319260e+005  6.7440626e+006  2.4970000e+003  8.6482684e+000  1.5659531e+002 -2.2222222e-001
  6.0322260e+005  6.7440626e+006  2.4990000e+003  8.7103550e+000  1.5761986e+002 -1.8055556e-001
  6.0073260e+005  6.7440926e+006  2.5430000e+003  1.9694601e+001  2.8209476e+002 -2.8472222e-001
  6.0076260e+005  6.7440926e+006  2.5330000e+003  1.9116857e+001  2.7968879e+002 -2.3611111e-001
  6.0079260e+005  6.7440926e+006  2.5230000e+003  1.8383829e+001  2.7792693e+002 -1.5972222e-001
  6.0082260e+005  6.7440926e+006  2.5130000e+003  1.8286465e+001  2.7506362e+002 -1.3194444e-001
  6.0085260e+005  6.7440926e+006  2.5030000e+003  1.7142165e+001  2.6845184e+002 -1.8055556e-001
  6.0088260e+005  6.7440926e+006  2.4950000e+003  1.4833526e+001  2.5727564e+002 -2.0138889e-001
  6.0091260e+005  6.7440926e+006  2.4880000e+003  1.2407764e+001  2.4537644e+002 -1.1805556e-001
  6.0094260e+005  6.7440926e+006  2.4830000e+003  1.2814236e+001  2.4155707e+002 -9.0277778e-002
  6.0097260e+005  6.7440926e+006  2.4760000e+003  1.4140646e+001  2.3578430e+002 -3.4722222e-001
  6.0100260e+005  6.7440926e+006  2.4700000e+003  1.4203597e+001  2.1290524e+002 -5.5555556e-001
  6.0103260e+005  6.7440926e+006  2.4670000e+003  1.8627031e+001  1.8853077e+002 -3.1597222e-001
  6.0106260e+005  6.7440926e+006  2.4660000e+003  2.4288751e+001  1.9307392e+002 -2.4305556e-001
  6.0109260e+005  6.7440926e+006  2.4630000e+003  2.7360322e+001  1.9493142e+002 -4.0277778e-001
  6.0148260e+005  6.7440926e+006  2.3800000e+003  1.8456419e+001  1.7713759e+002 -3.5763889e-001
  6.0151260e+005  6.7440926e+006  2.3800000e+003  1.5332460e+001  1.6321736e+002 -3.2638889e-001
  6.0154260e+005  6.7440926e+006  2.3840000e+003  1.3832303e+001  1.5603751e+002 -6.2500000e-002
  6.0157260e+005  6.7440926e+006  2.3860000e+003  1.3206566e+001  1.7388450e+002  1.3194444e-001
  6.0160260e+005  6.7440926e+006  2.3860000e+003  1.4103463e+001  1.8571059e+002  9.7222222e-002
  6.0163260e+005  6.7440926e+006  2.3850000e+003  1.5179706e+001  1.9061966e+002  1.3888889e-002
  6.0166260e+005  6.7440926e+006  2.3830000e+003  1.5796425e+001  1.8932359e+002 -8.3333333e-002
  6.0169260e+005  6.7440926e+006  2.3820000e+003  1.5639215e+001  1.8426789e+002 -1.1111111e-001
  6.0172260e+005  6.7440926e+006  2.3820000e+003  1.4710076e+001  1.8090938e+002 -6.2500000e-002
  6.0175260e+005  6.7440926e+006  2.3820000e+003  1.3585991e+001  1.8000000e+002 -1.3888889e-002
  6.0178260e+005  6.7440926e+006  2.3820000e+003  1.3134022e+001  1.8000000e+002  1.3888889e-002
  6.0181260e+005  6.7440926e+006  2.3820000e+003  1.2909470e+001  1.8104163e+002  1.1111111e-001
  6.0184260e+005  6.7440926e+006  2.3820000e+003  1.2625546e+001  1.8963754e+002  2.5694444e-001
  6.0187260e+005  6.7440926e+006  2.3800000e+003  1.3069152e+001  2.0103751e+002  2.6388889e-001
  6.0190260e+005  6.7440926e+006  2.3770000e+003  1.3238662e+001  2.0293210e+002  1.5972222e-001
  6.0193260e+005  6.7440926e+006  2.3750000e+003  1.2913593e+001  1.9909349e+002  1.1805556e-001
  6.0196260e+005  6.7440926e+006  2.3720000e+003  1.2485118e+001  1.9979888e+002  1.9444444e-001
  6.0199260e+005  6.7440926e+006  2.3700000e+003  1.2772578e+001  2.1602737e+002  2.2916667e-001
  6.0202260e+005  6.7440926e+006  2.3640000e+003  1.3326470e+001  2.3071059e+002  1.3194444e-001
  6.0205260e+005  6.7440926e+006  2.3590000e+003  1.2646669e+001  2.3867131e+002  9.0277778e-002
  6.0208260e+005  6.7440926e+006  2.3530000e+003  1.2523593e+001  2.4680141e+002  1.1805556e-001
  6.0211260e+005  6.7440926e+006  2.3470000e+003  1.3342364e+001  2.5156505e+002  1.3888889e-002
  6.0214260e+005  6.7440926e+006  2.3390000e+003  1.1927252e+001  2.4798872e+002 -2.5000000e-001
  6.0217260e+005  6.7440926e+006  2.3340000e+003  8.7166963e+000  2.2720260e+002 -4.7222222e-001
  6.0220260e+005  6.7440926e+006  2.3310000e+003  9.3747827e+000  1.9017551e+002 -6.2500000e-001
  6.0223260e+005  6.7440926e+006  2.3310000e+003  1.3206566e+001  1.6349564e+002 -6.1805556e-001
  6.0226260e+005  6.7440926e+006  2.3360000e+003  1.5616129e+001  1.5343495e+002 -2.6388889e-001
  6.0229260e+005  6.7440926e+006  2.3410000e+003  1.4073634e+001  1.5855226e+002  1.8750000e-001
  6.0232260e+005  6.7440926e+006  2.3420000e+003  1.1777437e+001  1.8229061e+002  2.9861111e-001
  6.0235260e+005  6.7440926e+006  2.3400000e+003  1.1471257e+001  1.9917901e+002  4.1666667e-002
  6.0238260e+005  6.7440926e+006  2.3380000e+003  1.0030443e+001  1.9501836e+002 -1.7361111e-001
  6.0241260e+005  6.7440926e+006  2.3370000e+003  9.0460320e+000  1.8600901e+002 -1.0416667e-001
  6.0244260e+005  6.7440926e+006  2.3370000e+003  9.6462253e+000  1.9130993e+002  4.8611111e-002
  6.0247260e+005  6.7440926e+006  2.3350000e+003  1.0606834e+001  2.0085446e+002  8.3333333e-002
  6.0250260e+005  6.7440926e+006  2.3330000e+003  1.0683508e+001  2.1052971e+002 -6.9444444e-002
  6.0253260e+005  6.7440926e+006  2.3290000e+003  7.9732332e+000  2.0275098e+002 -3.3333333e-001
  6.0256260e+005  6.7440926e+006  2.3290000e+003  6.0637651e+000  1.5444003e+002 -2.8472222e-001
  6.0259260e+005  6.7440926e+006  2.3320000e+003  6.2819428e+000  1.5052411e+002 -1.3888889e-002
  6.0262260e+005  6.7440926e+006  2.3330000e+003  7.2646265e+000  1.6869007e+002 -6.9444444e-003
  6.0265260e+005  6.7440926e+006  2.3330000e+003  8.4164580e+000  1.7027242e+002 -1.4583333e-001
  6.0292260e+005  6.7440926e+006  2.4790000e+003  2.6989509e+000  1.3500000e+002  3.6805556e-001
  6.0295260e+005  6.7440926e+006  2.4810000e+003  1.1846933e+001  1.6444543e+002 -4.7222222e-001
  6.0298260e+005  6.7440926e+006  2.4820000e+003  1.6118008e+001  1.5528256e+002 -5.4513889e-001
  6.0301260e+005  6.7440926e+006  2.4890000e+003  1.8480534e+001  1.4413018e+002 -2.9166667e-001
  6.0304260e+005  6.7440926e+006  2.4950000e+003  1.7456591e+001  1.4799462e+002  6.9444444e-003
  6.0307260e+005  6.7440926e+006  2.4990000e+003  1.5896960e+001  1.5944395e+002  3.4722222e-002
  6.0310260e+005  6.7440926e+006  2.5010000e+003  1.5179706e+001  1.6938034e+002 -1.3888889e-002
  6.0313260e+005  6.7440926e+006  2.5020000e+003  1.4724247e+001  1.7727369e+002 -7.6388889e-002
  6.0316260e+005  6.7440926e+006  2.5020000e+003  1.3813242e+001  1.7902898e+002 -1.9444444e-001
  6.0319260e+005  6.7440926e+006  2.5020000e+003  1.2303771e+001  1.7341806e+002 -3.7500000e-001
  6.0322260e+005  6.7440926e+006  2.5030000e+003  1.2554490e+001  1.5271579e+002 -4.3750000e-001
  6.0325260e+005  6.7440926e+006  2.5080000e+003  1.7329353e+001  1.4588553e+002 -2.3611111e-001
  6.0073260e+005  6.7441226e+006  2.5420000e+003  1.8005546e+001  2.6926548e+002 -2.5694444e-001
  6.0076260e+005  6.7441226e+006  2.5320000e+003  1.8232086e+001  2.6782526e+002 -2.7083333e-001
  6.0079260e+005  6.7441226e+006  2.5220000e+003  1.8026290e+001  2.6706433e+002 -2.9166667e-001
  6.0082260e+005  6.7441226e+006  2.5130000e+003  1.7189201e+001  2.6536454e+002 -3.1944444e-001
  6.0085260e+005  6.7441226e+006  2.5040000e+003  1.5359426e+001  2.6039480e+002 -3.3333333e-001
  6.0088260e+005  6.7441226e+006  2.4970000e+003  1.2913593e+001  2.5090651e+002 -3.4027778e-001
  6.0091260e+005  6.7441226e+006  2.4910000e+003  1.1405135e+001  2.3170984e+002 -3.4722222e-001
  6.0094260e+005  6.7441226e+006  2.4860000e+003  1.4084828e+001  2.1553768e+002 -3.8541667e-001
  6.0097260e+005  6.7441226e+006  2.4800000e+003  1.8174763e+001  2.0396249e+002 -6.1111111e-001
  6.0100260e+005  6.7441226e+006  2.4770000e+003  2.0042748e+001  1.9387753e+002 -8.8888889e-001
  6.0103260e+005  6.7441226e+006  2.4780000e+003  2.1703558e+001  1.6974880e+002 -5.7638889e-001
  6.0106260e+005  6.7441226e+006  2.4840000e+003  2.9243849e+001  1.6534325e+002 -5.7638889e-001
  6.0148260e+005  6.7441226e+006  2.3910000e+003  1.5324021e+001  1.8874616e+002 -2.6388889e-001
  6.0151260e+005  6.7441226e+006  2.3880000e+003  1.5796425e+001  1.7067641e+002 -3.1944444e-001
  6.0154260e+005  6.7441226e+006  2.3920000e+003  1.6723558e+001  1.6055997e+002 -8.3333333e-002
  6.0157260e+005  6.7441226e+006  2.3940000e+003  1.5436640e+001  1.7480557e+002  1.3888889e-001
  6.0160260e+005  6.7441226e+006  2.3940000e+003  1.4752539e+001  1.8453777e+002  9.7222222e-002
  6.0163260e+005  6.7441226e+006  2.3930000e+003  1.4851062e+001  1.8813010e+002  6.9444444e-002
  6.0166260e+005  6.7441226e+006  2.3920000e+003  1.5104355e+001  1.8888066e+002  6.2500000e-002
  6.0169260e+005  6.7441226e+006  2.3910000e+003  1.4794859e+001  1.8634019e+002  6.9444444e-002
  6.0172260e+005  6.7441226e+006  2.3900000e+003  1.4103463e+001  1.8571059e+002  5.5555556e-002
  6.0175260e+005  6.7441226e+006  2.3890000e+003  1.3378046e+001  1.8301279e+002  3.4722222e-002
  6.0178260e+005  6.7441226e+006  2.3890000e+003  1.2909470e+001  1.8104163e+002  9.7222222e-002
  6.0181260e+005  6.7441226e+006  2.3890000e+003  1.2052739e+001  1.8559934e+002  1.8750000e-001
  6.0184260e+005  6.7441226e+006  2.3880000e+003  1.1043444e+001  1.9611342e+002  2.2222222e-001
  6.0187260e+005  6.7441226e+006  2.3860000e+003  1.0865111e+001  2.0712130e+002  1.7361111e-001
  6.0190260e+005  6.7441226e+006  2.3830000e+003  1.0769683e+001  2.0881079e+002  5.5555556e-002
  6.0193260e+005  6.7441226e+006  2.3800000e+003  1.0606834e+001  2.0085446e+002  3.4722222e-002
  6.0196260e+005  6.7441226e+006  2.3790000e+003  1.1504160e+001  2.0289055e+002  1.9444444e-001
  6.0199260e+005  6.7441226e+006  2.3750000e+003  1.3617062e+001  2.2081508e+002  2.5694444e-001
  6.0202260e+005  6.7441226e+006  2.3690000e+003  1.5021640e+001  2.3384181e+002  1.1805556e-001
  6.0205260e+005  6.7441226e+006  2.3620000e+003  1.4434095e+001  2.4094540e+002  6.9444444e-003
  6.0208260e+005  6.7441226e+006  2.3550000e+003  1.3832303e+001  2.4603751e+002 -6.2500000e-002
  6.0211260e+005  6.7441226e+006  2.3480000e+003  1.3535326e+001  2.4654098e+002 -2.4305556e-001
  6.0214260e+005  6.7441226e+006  2.3420000e+003  1.1727024e+001  2.3151980e+002 -5.0000000e-001
  6.0217260e+005  6.7441226e+006  2.3380000e+003  1.1648635e+001  1.9403624e+002 -6.0416667e-001
  6.0220260e+005  6.7441226e+006  2.3390000e+003  1.6051124e+001  1.6999202e+002 -4.4444444e-001
  6.0223260e+005  6.7441226e+006  2.3420000e+003  1.9188419e+001  1.6330076e+002 -1.8750000e-001
  6.0226260e+005  6.7441226e+006  2.3450000e+003  1.8100721e+001  1.6295097e+002  6.5052130e-017
  6.0229260e+005  6.7441226e+006  2.3470000e+003  1.4481123e+001  1.6977783e+002  1.1111111e-001
  6.0232260e+005  6.7441226e+006  2.3480000e+003  1.2106073e+001  1.8781529e+002  1.3194444e-001
  6.0235260e+005  6.7441226e+006  2.3460000e+003  1.2057193e+001  2.0055605e+002  1.3888889e-002
  6.0238260e+005  6.7441226e+006  2.3430000e+003  1.1768289e+001  1.9626020e+002 -1.3194444e-001
  6.0241260e+005  6.7441226e+006  2.3420000e+003  1.0939804e+001  1.8743141e+002 -1.1111111e-001
  6.0244260e+005  6.7441226e+006  2.3420000e+003  1.0288595e+001  1.8924611e+002  4.1666667e-002
  6.0247260e+005  6.7441226e+006  2.3410000e+003  1.0606834e+001  2.0085446e+002  1.3888889e-001
  6.0250260e+005  6.7441226e+006  2.3380000e+003  1.1630105e+001  2.1175948e+002 -6.9444444e-003
  6.0253260e+005  6.7441226e+006  2.3340000e+003  1.0905017e+001  2.0157131e+002 -3.1250000e-001
  6.0256260e+005  6.7441226e+006  2.3330000e+003  1.0024988e+001  1.7186990e+002 -3.8194444e-001
  6.0259260e+005  6.7441226e+006  2.3350000e+003  9.5777065e+000  1.5977514e+002 -2.1527778e-001
  6.0262260e+005  6.7441226e+006  2.3370000e+003  9.7198677e+000  1.6156505e+002 -1.0416667e-001
  6.0265260e+005  6.7441226e+006  2.3390000e+003  1.1109507e+001  1.6271850e+002 -7.6388889e-002
  6.0295260e+005  6.7441226e+006  2.4900000e+003  2.0406471e+001  1.6440719e+002 -4.2013889e-001
  6.0298260e+005  6.7441226e+006  2.4940000e+003  2.0782250e+001  1.6076933e+002 -2.8472222e-001
  6.0301260e+005  6.7441226e+006  2.4980000e+003  2.0347638e+001  1.5257126e+002 -1.2500000e-001
  6.0304260e+005  6.7441226e+006  2.5040000e+003  1.9315343e+001  1.5160698e+002  1.1805556e-001
  6.0307260e+005  6.7441226e+006  2.5080000e+003  1.7959800e+001  1.6203086e+002  2.2222222e-001
  6.0310260e+005  6.7441226e+006  2.5100000e+003  1.6850495e+001  1.7209284e+002  1.8055556e-001
  6.0313260e+005  6.7441226e+006  2.5110000e+003  1.6041541e+001  1.7916968e+002  1.1111111e-001
  6.0316260e+005  6.7441226e+006  2.5100000e+003  1.5612828e+001  1.8256377e+002  6.9444444e-003
  6.0319260e+005  6.7441226e+006  2.5100000e+003  1.4931417e+001  1.8000000e+002 -2.2222222e-001
  6.0322260e+005  6.7441226e+006  2.5100000e+003  1.5196769e+001  1.5934109e+002 -5.9722222e-001
  6.0325260e+005  6.7441226e+006  2.5160000e+003  2.2243639e+001  1.2879655e+002 -5.5555556e-001
  6.0328260e+005  6.7441226e+006  2.5310000e+003  2.7336044e+001  1.1077225e+002 -4.5138889e-001
  6.0073260e+005  6.7441526e+006  2.5430000e+003  1.6726594e+001  2.5307249e+002 -1.4583333e-001
  6.0076260e+005  6.7441526e+006  2.5340000e+003  1.8640275e+001  2.5201267e+002 -2.1875000e-001
  6.0079260e+005  6.7441526e+006  2.5240000e+003  1.8910438e+001  2.5156505e+002 -3.7500000e-001
  6.0082260e+005  6.7441526e+006  2.5140000e+003  1.7690654e+001  2.5014479e+002 -4.6527778e-001
  6.0085260e+005  6.7441526e+006  2.5060000e+003  1.5423245e+001  2.4498311e+002 -5.4166667e-001
  6.0088260e+005  6.7441526e+006  2.4990000e+003  1.2979350e+001  2.2939871e+002 -6.7361111e-001
  6.0091260e+005  6.7441526e+006  2.4950000e+003  1.3488363e+001  1.9717590e+002 -5.4513889e-001
  6.0094260e+005  6.7441526e+006  2.4950000e+003  1.7848981e+001  1.9232777e+002 -3.1944444e-001
  6.0097260e+005  6.7441526e+006  2.4940000e+003  2.4359556e+001  1.8634019e+002 -5.7291667e-001
  6.0100260e+005  6.7441526e+006  2.4940000e+003  2.8468466e+001  1.8264255e+002 -7.0833333e-001
  6.0148260e+005  6.7441526e+006  2.3960000e+003  1.7662319e+001  1.8600901e+002 -4.7222222e-001
  6.0151260e+005  6.7441526e+006  2.3970000e+003  1.7528369e+001  1.7165611e+002 -2.9861111e-001
  6.0154260e+005  6.7441526e+006  2.4010000e+003  1.7145110e+001  1.6352312e+002  8.3333333e-002
  6.0157260e+005  6.7441526e+006  2.4030000e+003  1.5155779e+001  1.7911860e+002  2.5000000e-001
  6.0160260e+005  6.7441526e+006  2.4010000e+003  1.4350447e+001  1.8654629e+002  1.3194444e-001
  6.0163260e+005  6.7441526e+006  2.4010000e+003  1.3964881e+001  1.8867317e+002  1.2500000e-001
  6.0166260e+005  6.7441526e+006  2.3990000e+003  1.3421509e+001  1.9209476e+002  1.1805556e-001
  6.0169260e+005  6.7441526e+006  2.3980000e+003  1.2625546e+001  1.8963754e+002  1.1111111e-001
  6.0172260e+005  6.7441526e+006  2.3970000e+003  1.2176779e+001  1.9000798e+002  1.1111111e-001
  6.0175260e+005  6.7441526e+006  2.3960000e+003  1.1395654e+001  1.8712502e+002  9.0277778e-002
  6.0178260e+005  6.7441526e+006  2.3960000e+003  1.0430760e+001  1.8519443e+002  1.5277778e-001
  6.0181260e+005  6.7441526e+006  2.3950000e+003  9.7480322e+000  1.9403624e+002  1.8750000e-001
  6.0184260e+005  6.7441526e+006  2.3930000e+003  9.6291448e+000  2.0467686e+002  1.1111111e-001
  6.0187260e+005  6.7441526e+006  2.3900000e+003  9.9702616e+000  2.1142957e+002 -3.4722222e-002
  6.0190260e+005  6.7441526e+006  2.3870000e+003  1.0246059e+001  2.0597439e+002 -1.6666667e-001
  6.0193260e+005  6.7441526e+006  2.3850000e+003  1.0759584e+001  1.9525512e+002 -6.9444444e-002
  6.0196260e+005  6.7441526e+006  2.3840000e+003  1.1386165e+001  2.0444395e+002  2.2916667e-001
  6.0199260e+005  6.7441526e+006  2.3810000e+003  1.3585991e+001  2.2639718e+002  3.7500000e-001
  6.0202260e+005  6.7441526e+006  2.3740000e+003  1.5951766e+001  2.3932272e+002  2.0833333e-001
  6.0205260e+005  6.7441526e+006  2.3660000e+003  1.5718057e+001  2.4457313e+002 -6.2500000e-002
  6.0208260e+005  6.7441526e+006  2.3590000e+003  1.4129503e+001  2.4131385e+002 -2.0138889e-001
  6.0211260e+005  6.7441526e+006  2.3520000e+003  1.3961113e+001  2.3044033e+002 -3.4722222e-001
  6.0214260e+005  6.7441526e+006  2.3460000e+003  1.3214599e+001  2.0747443e+002 -5.2083333e-001
  6.0217260e+005  6.7441526e+006  2.3460000e+003  1.4277243e+001  1.7718444e+002 -4.7222222e-001
  6.0220260e+005  6.7441526e+006  2.3480000e+003  1.6444370e+001  1.6105350e+002 -2.2222222e-001
  6.0223260e+005  6.7441526e+006  2.3530000e+003  1.7439309e+001  1.5819859e+002  7.6388889e-002
  6.0226260e+005  6.7441526e+006  2.3550000e+003  1.7343871e+001  1.6689079e+002  2.4305556e-001
  6.0229260e+005  6.7441526e+006  2.3560000e+003  1.6260205e+001  1.8000000e+002  2.1527778e-001
  6.0232260e+005  6.7441526e+006  2.3540000e+003  1.4506372e+001  1.9493142e+002  6.9444444e-002
  6.0235260e+005  6.7441526e+006  2.3520000e+003  1.2942409e+001  2.0238014e+002 -9.7222222e-002
  6.0238260e+005  6.7441526e+006  2.3500000e+003  1.1768289e+001  1.9626020e+002 -1.3194444e-001
  6.0241260e+005  6.7441526e+006  2.3490000e+003  1.1276401e+001  1.9084031e+002 -4.8611111e-002
  6.0244260e+005  6.7441526e+006  2.3470000e+003  1.0647802e+001  1.9280427e+002  5.5555556e-002
  6.0247260e+005  6.7441526e+006  2.3460000e+003  1.0477682e+001  2.0252057e+002  1.3194444e-001
  6.0250260e+005  6.7441526e+006  2.3430000e+003  1.1314714e+001  2.1137301e+002  1.3888889e-002
  6.0253260e+005  6.7441526e+006  2.3400000e+003  1.0890071e+001  1.9765012e+002 -1.8055556e-001
  6.0256260e+005  6.7441526e+006  2.3400000e+003  1.1141162e+001  1.7392754e+002 -1.5277778e-001
  6.0259260e+005  6.7441526e+006  2.3410000e+003  1.1371915e+001  1.6682745e+002 -6.2500000e-002
  6.0262260e+005  6.7441526e+006  2.3420000e+003  1.1179986e+001  1.6156505e+002 -4.8611111e-002
  6.0265260e+005  6.7441526e+006  2.3450000e+003  1.1386165e+001  1.5555605e+002 -2.7777778e-002
  6.0295260e+005  6.7441526e+006  2.5020000e+003  2.2510658e+001  1.6722127e+002 -8.3333333e-002
  6.0298260e+005  6.7441526e+006  2.5050000e+003  2.0451031e+001  1.6642957e+002 -6.2500000e-002
  6.0301260e+005  6.7441526e+006  2.5080000e+003  1.8122700e+001  1.5833404e+002 -6.9444444e-002
  6.0304260e+005  6.7441526e+006  2.5130000e+003  1.7230226e+001  1.4930028e+002  1.4583333e-001
  6.0307260e+005  6.7441526e+006  2.5180000e+003  1.5483415e+001  1.5883874e+002  3.8194444e-001
  6.0310260e+005  6.7441526e+006  2.5190000e+003  1.4350447e+001  1.7345371e+002  3.3333333e-001
  6.0313260e+005  6.7441526e+006  2.5190000e+003  1.4036243e+001  1.8000000e+002  2.3611111e-001
  6.0316260e+005  6.7441526e+006  2.5190000e+003  1.3858936e+001  1.8484400e+002  1.5972222e-001
  6.0319260e+005  6.7441526e+006  2.5180000e+003  1.3593767e+001  1.8197493e+002 -6.9444444e-002
  6.0322260e+005  6.7441526e+006  2.5180000e+003  1.4203597e+001  1.5977514e+002 -4.2361111e-001
  6.0325260e+005  6.7441526e+006  2.5230000e+003  1.9770769e+001  1.2461114e+002 -4.2013889e-001
  6.0328260e+005  6.7441526e+006  2.5360000e+003  2.4327618e+001  1.0993799e+002 -3.2638889e-001
  6.0073260e+005  6.7441826e+006  2.5480000e+003  1.9875778e+001  2.4402561e+002 -3.8194444e-001
  6.0076260e+005  6.7441826e+006  2.5380000e+003  1.8499930e+001  2.3720047e+002 -4.0277778e-001
  6.0079260e+005  6.7441826e+006  2.5290000e+003  2.1280348e+001  2.3545991e+002 -4.2013889e-001
  6.0082260e+005  6.7441826e+006  2.5190000e+003  2.0516459e+001  2.3223692e+002 -6.8750000e-001
  6.0085260e+005  6.7441826e+006  2.5110000e+003  1.8576591e+001  2.2299045e+002 -8.6111111e-001
  6.0088260e+005  6.7441826e+006  2.5050000e+003  1.7690654e+001  1.9985521e+002 -7.5000000e-001
  6.0091260e+005  6.7441826e+006  2.5040000e+003  1.9088647e+001  1.8207003e+002 -7.0138889e-001
  6.0094260e+005  6.7441826e+006  2.5070000e+003  2.0928177e+001  1.6869007e+002 -4.9305556e-001
  6.0148260e+005  6.7441826e+006  2.4100000e+003  2.1943320e+001  1.9072886e+002 -1.1458333e-001
  6.0151260e+005  6.7441826e+006  2.4070000e+003  1.8650862e+001  1.7929268e+002 -1.1805556e-001
  6.0154260e+005  6.7441826e+006  2.4100000e+003  1.5616129e+001  1.6969515e+002  1.6666667e-001
  6.0157260e+005  6.7441826e+006  2.4100000e+003  1.3617062e+001  1.8394519e+002  3.0555556e-001
  6.0160260e+005  6.7441826e+006  2.4090000e+003  1.2888835e+001  1.9049148e+002  2.2222222e-001
  6.0163260e+005  6.7441826e+006  2.4080000e+003  1.2092764e+001  1.9349573e+002  2.1527778e-001
  6.0166260e+005  6.7441826e+006  2.4060000e+003  1.1616186e+001  1.9770043e+002  1.6666667e-001
  6.0169260e+005  6.7441826e+006  2.4040000e+003  1.0759584e+001  1.9525512e+002  1.2500000e-001
  6.0172260e+005  6.7441826e+006  2.4030000e+003  1.0030443e+001  1.9501836e+002  1.2500000e-001
  6.0175260e+005  6.7441826e+006  2.4010000e+003  9.4681273e+000  1.9299462e+002  9.0277778e-002
  6.0178260e+005  6.7441826e+006  2.4000000e+003  8.9170896e+000  1.9071312e+002  9.0277778e-002
  6.0181260e+005  6.7441826e+006  2.3990000e+003  9.1369461e+000  1.9655707e+002  6.9444444e-002
  6.0184260e+005  6.7441826e+006  2.3970000e+003  1.0309791e+001  2.0009523e+002 -1.3888889e-002
  6.0187260e+005  6.7441826e+006  2.3950000e+003  1.2057193e+001  2.0055605e+002 -1.1111111e-001
  6.0190260e+005  6.7441826e+006  2.3920000e+003  1.3085404e+001  1.9453446e+002 -1.3194444e-001
  6.0193260e+005  6.7441826e+006  2.3920000e+003  1.2810077e+001  1.9378160e+002  4.8611111e-002
  6.0196260e+005  6.7441826e+006  2.3900000e+003  1.2137064e+001  2.1553768e+002  2.1527778e-001
  6.0199260e+005  6.7441826e+006  2.3850000e+003  1.3346334e+001  2.3938139e+002  1.7361111e-001
  6.0202260e+005  6.7441826e+006  2.3780000e+003  1.5128379e+001  2.4540988e+002  2.0833333e-002
  6.0205260e+005  6.7441826e+006  2.3690000e+003  1.6118008e+001  2.4158734e+002 -2.5000000e-001
  6.0208260e+005  6.7441826e+006  2.3610000e+003  1.4310239e+001  2.3163251e+002 -4.2361111e-001
  6.0211260e+005  6.7441826e+006  2.3580000e+003  1.3405723e+001  2.1646923e+002 -3.9583333e-001
  6.0214260e+005  6.7441826e+006  2.3540000e+003  1.3797972e+001  1.9474356e+002 -4.2361111e-001
  6.0217260e+005  6.7441826e+006  2.3540000e+003  1.5874326e+001  1.6901935e+002 -3.7500000e-001
  6.0220260e+005  6.7441826e+006  2.3560000e+003  1.8373043e+001  1.6020112e+002 -1.9444444e-001
  6.0223260e+005  6.7441826e+006  2.3590000e+003  1.8373043e+001  1.6020112e+002  4.1666667e-002
  6.0226260e+005  6.7441826e+006  2.3640000e+003  1.6133883e+001  1.6836637e+002  3.1250000e-001
  6.0229260e+005  6.7441826e+006  2.3650000e+003  1.4752539e+001  1.8453777e+002  4.0277778e-001
  6.0232260e+005  6.7441826e+006  2.3630000e+003  1.5329085e+001  1.9953665e+002  2.0833333e-001
  6.0235260e+005  6.7441826e+006  2.3580000e+003  1.5241027e+001  2.0342869e+002 -9.0277778e-002
  6.0238260e+005  6.7441826e+006  2.3550000e+003  1.3488363e+001  1.9717590e+002 -1.6666667e-001
  6.0241260e+005  6.7441826e+006  2.3540000e+003  1.1927252e+001  1.9485861e+002 -4.1666667e-002
  6.0244260e+005  6.7441826e+006  2.3530000e+003  1.0744416e+001  1.9923067e+002  6.2500000e-002
  6.0247260e+005  6.7441826e+006  2.3510000e+003  1.0144261e+001  2.0775854e+002  8.3333333e-002
  6.0250260e+005  6.7441826e+006  2.3480000e+003  1.0288595e+001  2.1186598e+002 -3.4722222e-002
  6.0253260e+005  6.7441826e+006  2.3450000e+003  9.5834365e+000  1.9575117e+002 -1.4583333e-001
  6.0256260e+005  6.7441826e+006  2.3450000e+003  9.3041150e+000  1.7269424e+002 -2.7777778e-002
  6.0259260e+005  6.7441826e+006  2.3470000e+003  9.0155098e+000  1.6632869e+002  1.0416667e-001
  6.0262260e+005  6.7441826e+006  2.3480000e+003  9.4448839e+000  1.5793210e+002  1.0763889e-001
  6.0265260e+005  6.7441826e+006  2.3500000e+003  1.0568270e+001  1.5057254e+002 -4.1666667e-002
  6.0295260e+005  6.7441826e+006  2.5150000e+003  2.2684824e+001  1.7542608e+002  9.0277778e-002
  6.0298260e+005  6.7441826e+006  2.5160000e+003  2.0179286e+001  1.7609951e+002 -4.1666667e-002
  6.0301260e+005  6.7441826e+006  2.5160000e+003  1.6994131e+001  1.6899646e+002 -2.2916667e-001
  6.0304260e+005  6.7441826e+006  2.5190000e+003  1.5220619e+001  1.5265012e+002 -9.7222222e-002
  6.0307260e+005  6.7441826e+006  2.5240000e+003  1.2822549e+001  1.5625051e+002  2.0833333e-001
  6.0310260e+005  6.7441826e+006  2.5250000e+003  1.1395654e+001  1.7287498e+002  2.6388889e-001
  6.0313260e+005  6.7441826e+006  2.5260000e+003  1.1082645e+001  1.8121888e+002  2.1527778e-001
  6.0316260e+005  6.7441826e+006  2.5250000e+003  1.0939804e+001  1.8743141e+002  1.1805556e-001
  6.0319260e+005  6.7441826e+006  2.5240000e+003  1.1309932e+001  1.8000000e+002 -5.5555556e-002
  6.0322260e+005  6.7441826e+006  2.5250000e+003  1.2351557e+001  1.5880594e+002 -2.7083333e-001
  6.0325260e+005  6.7441826e+006  2.5290000e+003  1.6307268e+001  1.2572740e+002 -3.3333333e-001
  6.0328260e+005  6.7441826e+006  2.5390000e+003  1.9920729e+001  1.0947658e+002 -2.7777778e-001
  6.0076260e+005  6.7442126e+006  2.5470000e+003  2.4450459e+001  2.2128471e+002 -3.7847222e-001
  6.0079260e+005  6.7442126e+006  2.5370000e+003  2.5411135e+001  2.1787498e+002 -4.7222222e-001
  6.0082260e+005  6.7442126e+006  2.5280000e+003  2.6706090e+001  2.1145206e+002 -6.6666667e-001
  6.0085260e+005  6.7442126e+006  2.5200000e+003  2.6623833e+001  2.0720401e+002 -1.0277778e+000
  6.0088260e+005  6.7442126e+006  2.5160000e+003  2.1086199e+001  1.8620345e+002 -7.7083333e-001
  6.0091260e+005  6.7442126e+006  2.5190000e+003  2.5239402e+001  1.7186990e+002 -7.6388889e-001
  6.0145260e+005  6.7442126e+006  2.4350000e+003  2.1313574e+001  2.8998311e+002 -1.0208333e+000
  6.0148260e+005  6.7442126e+006  2.4210000e+003  1.7957717e+001  2.2552086e+002 -6.9444444e-002
  6.0151260e+005  6.7442126e+006  2.4170000e+003  1.4741937e+001  1.9095406e+002 -9.3750000e-002
  6.0154260e+005  6.7442126e+006  2.4170000e+003  1.2225123e+001  1.8000000e+002  1.9444444e-001
  6.0157260e+005  6.7442126e+006  2.4170000e+003  1.0373097e+001  1.9182149e+002  2.9861111e-001
  6.0160260e+005  6.7442126e+006  2.4150000e+003  9.4448839e+000  2.0206790e+002  2.4305556e-001
  6.0163260e+005  6.7442126e+006  2.4130000e+003  8.5889252e+000  2.0444395e+002  2.0833333e-001
  6.0166260e+005  6.7442126e+006  2.4110000e+003  8.4787131e+000  2.0656505e+002  1.8750000e-001
  6.0169260e+005  6.7442126e+006  2.4090000e+003  8.1658096e+000  2.0582099e+002  1.3194444e-001
  6.0172260e+005  6.7442126e+006  2.4070000e+003  7.6675772e+000  2.0180141e+002  9.0277778e-002
  6.0175260e+005  6.7442126e+006  2.4060000e+003  7.6603166e+000  1.9618921e+002  8.3333333e-002
  6.0178260e+005  6.7442126e+006  2.4050000e+003  8.0010430e+000  1.9197613e+002  6.2500000e-002
  6.0181260e+005  6.7442126e+006  2.4040000e+003  9.1067491e+000  1.8897263e+002  3.4722222e-002
  6.0184260e+005  6.7442126e+006  2.4030000e+003  1.1009016e+001  1.8986581e+002  4.8611111e-002
  6.0187260e+005  6.7442126e+006  2.4020000e+003  1.2368882e+001  1.9430028e+002  4.8611111e-002
  6.0190260e+005  6.7442126e+006  2.4010000e+003  1.2709800e+001  1.9172511e+002  9.7222222e-002
  6.0193260e+005  6.7442126e+006  2.3990000e+003  1.3056948e+001  1.9778389e+002  2.5694444e-001
  6.0196260e+005  6.7442126e+006  2.3950000e+003  1.4907016e+001  2.1992039e+002  1.8750000e-001
  6.0199260e+005  6.7442126e+006  2.3870000e+003  1.6527812e+001  2.3184277e+002 -1.4583333e-001
  6.0202260e+005  6.7442126e+006  2.3800000e+003  1.6184556e+001  2.3082634e+002 -2.9166667e-001
  6.0205260e+005  6.7442126e+006  2.3750000e+003  1.7047608e+001  2.2279740e+002 -2.7083333e-001
  6.0208260e+005  6.7442126e+006  2.3680000e+003  1.7879037e+001  2.1553768e+002 -3.9583333e-001
  6.0211260e+005  6.7442126e+006  2.3630000e+003  1.6012751e+001  2.0582099e+002 -5.6250000e-001
  6.0214260e+005  6.7442126e+006  2.3610000e+003  1.4993948e+001  1.8535583e+002 -6.1111111e-001
  6.0217260e+005  6.7442126e+006  2.3620000e+003  1.7687823e+001  1.6251200e+002 -4.0277778e-001
  6.0220260e+005  6.7442126e+006  2.3680000e+003  2.0023485e+001  1.5783365e+002  6.9444444e-002
  6.0223260e+005  6.7442126e+006  2.3720000e+003  1.8188432e+001  1.6755000e+002  3.4722222e-001
  6.0226260e+005  6.7442126e+006  2.3720000e+003  1.4036243e+001  1.8000000e+002  2.8472222e-001
  6.0229260e+005  6.7442126e+006  2.3710000e+003  1.1461837e+001  1.8946232e+002  2.2222222e-001
  6.0232260e+005  6.7442126e+006  2.3700000e+003  1.2625546e+001  1.9843495e+002  2.3611111e-001
  6.0235260e+005  6.7442126e+006  2.3670000e+003  1.4948818e+001  2.0296377e+002  1.4583333e-001
  6.0238260e+005  6.7442126e+006  2.3640000e+003  1.4780768e+001  2.0129735e+002  3.4722222e-002
  6.0241260e+005  6.7442126e+006  2.3610000e+003  1.2942409e+001  2.0238014e+002  2.7777778e-002
  6.0244260e+005  6.7442126e+006  2.3580000e+003  1.1175141e+001  2.0764598e+002  2.7777778e-002
  6.0247260e+005  6.7442126e+006  2.3550000e+003  1.0288595e+001  2.1186598e+002 -2.0833333e-002
  6.0250260e+005  6.7442126e+006  2.3520000e+003  1.0052230e+001  2.0957784e+002 -1.0416667e-001
  6.0253260e+005  6.7442126e+006  2.3500000e+003  9.1369461e+000  1.9655707e+002 -1.2500000e-001
  6.0256260e+005  6.7442126e+006  2.3500000e+003  7.3637405e+000  1.8184761e+002 -2.7777778e-002
  6.0259260e+005  6.7442126e+006  2.3500000e+003  5.3228528e+000  1.6969515e+002  2.4305556e-002
  6.0262260e+005  6.7442126e+006  2.3510000e+003  5.2293989e+000  1.3869139e+002 -0.0000000e+000
  6.0265260e+005  6.7442126e+006  2.3550000e+003  1.0759584e+001  1.4212502e+002 -1.4583333e-001
  6.0295260e+005  6.7442126e+006  2.5280000e+003  2.0136303e+001  1.8000000e+002  1.9444444e-001
  6.0298260e+005  6.7442126e+006  2.5270000e+003  1.9936491e+001  1.8197493e+002  2.7777778e-002
  6.0301260e+005  6.7442126e+006  2.5260000e+003  1.8868801e+001  1.7860282e+002 -1.9444444e-001
  6.0304260e+005  6.7442126e+006  2.5270000e+003  1.6656590e+001  1.6712500e+002 -1.7361111e-001
  6.0307260e+005  6.7442126e+006  2.5300000e+003  1.3523603e+001  1.6596376e+002  4.8611111e-002
  6.0310260e+005  6.7442126e+006  2.5310000e+003  1.0860111e+001  1.7751045e+002  1.4583333e-001
  6.0313260e+005  6.7442126e+006  2.5310000e+003  9.7198677e+000  1.8418492e+002  1.1805556e-001
  6.0316260e+005  6.7442126e+006  2.5300000e+003  9.7648888e+000  1.8695296e+002  3.4722222e-002
  6.0319260e+005  6.7442126e+006  2.5300000e+003  9.6972727e+000  1.7860282e+002 -6.9444444e-002
  6.0322260e+005  6.7442126e+006  2.5310000e+003  1.0052230e+001  1.5644774e+002 -1.9444444e-001
  6.0325260e+005  6.7442126e+006  2.5340000e+003  1.3405723e+001  1.2646923e+002 -2.2916667e-001
  6.0328260e+005  6.7442126e+006  2.5420000e+003  1.6547822e+001  1.1224902e+002 -1.9097222e-001
  6.0013260e+005  6.7442426e+006  2.9380000e+003  1.5369524e+001  1.4036243e+001  1.3888889e-001
  6.0016260e+005  6.7442426e+006  2.9410000e+003  1.9813595e+001  5.9743233e+000  3.3333333e-001
  6.0019260e+005  6.7442426e+006  2.9420000e+003  2.5597966e+001  3.4693068e+002  5.6944444e-001
  6.0022260e+005  6.7442426e+006  2.9360000e+003  3.1682357e+001  3.3135867e+002  4.1666667e-001
  6.0025260e+005  6.7442426e+006  2.9250000e+003  3.4017325e+001  3.2709476e+002  2.0833333e-001
  6.0076260e+005  6.7442426e+006  2.5580000e+003  2.5135482e+001  2.1340782e+002 -2.2222222e-001
  6.0079260e+005  6.7442426e+006  2.5510000e+003  2.7723221e+001  2.0737770e+002 -3.8888889e-001
  6.0082260e+005  6.7442426e+006  2.5450000e+003  3.1121474e+001  2.0018580e+002 -5.4166667e-001
  6.0085260e+005  6.7442426e+006  2.5400000e+003  3.3809456e+001  1.9663095e+002 -7.0833333e-001
  6.0145260e+005  6.7442426e+006  2.4280000e+003  1.1050805e+001  2.5892980e+002 -7.2222222e-001
  6.0148260e+005  6.7442426e+006  2.4260000e+003  1.0373097e+001  2.2869139e+002 -6.5972222e-002
  6.0151260e+005  6.7442426e+006  2.4240000e+003  1.0052230e+001  2.0355226e+002  6.9444444e-002
  6.0154260e+005  6.7442426e+006  2.4220000e+003  8.5631282e+000  1.9442077e+002  1.6666667e-001
  6.0157260e+005  6.7442426e+006  2.4210000e+003  7.8538855e+000  2.0501689e+002  2.2222222e-001
  6.0160260e+005  6.7442426e+006  2.4180000e+003  7.7469737e+000  2.2003026e+002  1.3194444e-001
  6.0163260e+005  6.7442426e+006  2.4160000e+003  6.4231509e+000  2.1899099e+002  5.5555556e-002
  6.0166260e+005  6.7442426e+006  2.4140000e+003  6.0914780e+000  2.1865981e+002  6.2500000e-002
  6.0169260e+005  6.7442426e+006  2.4120000e+003  6.1373797e+000  2.1553768e+002  2.7777778e-002
  6.0172260e+005  6.7442426e+006  2.4100000e+003  5.9610159e+000  2.0861046e+002 -1.3888889e-002
  6.0175260e+005  6.7442426e+006  2.4090000e+003  5.5709600e+000  1.9998311e+002 -4.1666667e-002
  6.0178260e+005  6.7442426e+006  2.4080000e+003  5.9892184e+000  1.8684277e+002 -6.9444444e-002
  6.0181260e+005  6.7442426e+006  2.4080000e+003  7.8609587e+000  1.7480557e+002  6.9444444e-003
  6.0184260e+005  6.7442426e+006  2.4090000e+003  9.6972727e+000  1.8139718e+002  1.7361111e-001
  6.0187260e+005  6.7442426e+006  2.4080000e+003  1.0759584e+001  1.9525512e+002  1.5277778e-001
  6.0190260e+005  6.7442426e+006  2.4050000e+003  1.0647802e+001  1.9280427e+002  1.2500000e-001
  6.0193260e+005  6.7442426e+006  2.4060000e+003  1.1471257e+001  1.9917901e+002  3.0555556e-001
  6.0196260e+005  6.7442426e+006  2.4020000e+003  1.5382975e+001  2.1513419e+002  3.2638889e-001
  6.0199260e+005  6.7442426e+006  2.3960000e+003  1.9211347e+001  2.2112148e+002  6.9444444e-002
  6.0202260e+005  6.7442426e+006  2.3880000e+003  1.9211347e+001  2.2112148e+002 -1.9444444e-001
  6.0205260e+005  6.7442426e+006  2.3820000e+003  1.7156881e+001  2.1175948e+002 -1.5277778e-001
  6.0208260e+005  6.7442426e+006  2.3790000e+003  1.9026909e+001  2.0501689e+002 -8.3333333e-002
  6.0211260e+005  6.7442426e+006  2.3720000e+003  2.1045721e+001  1.9765012e+002 -3.4722222e-001
  6.0214260e+005  6.7442426e+006  2.3700000e+003  2.0978018e+001  1.8124536e+002 -4.7916667e-001
  6.0217260e+005  6.7442426e+006  2.3720000e+003  2.0298040e+001  1.6565067e+002 -1.8750000e-001
  6.0220260e+005  6.7442426e+006  2.3770000e+003  1.7562691e+001  1.5917911e+002  2.9861111e-001
  6.0223260e+005  6.7442426e+006  2.3800000e+003  1.3655785e+001  1.7409386e+002  4.9305556e-001
  6.0226260e+005  6.7442426e+006  2.3780000e+003  1.2536388e+001  1.9299462e+002  2.2222222e-001
  6.0229260e+005  6.7442426e+006  2.3760000e+003  1.1648635e+001  1.9403624e+002  1.3888889e-002
  6.0232260e+005  6.7442426e+006  2.3750000e+003  1.1043444e+001  1.9611342e+002  1.1805556e-001
  6.0235260e+005  6.7442426e+006  2.3740000e+003  1.1690208e+001  2.0501689e+002  2.3611111e-001
  6.0238260e+005  6.7442426e+006  2.3700000e+003  1.2416385e+001  2.0947589e+002  2.1527778e-001
  6.0241260e+005  6.7442426e+006  2.3670000e+003  1.2260147e+001  2.1247119e+002  1.2500000e-001
  6.0244260e+005  6.7442426e+006  2.3630000e+003  1.1560324e+001  2.1336637e+002  1.3888889e-002
  6.0247260e+005  6.7442426e+006  2.3600000e+003  1.0999158e+001  2.1096376e+002 -6.2500000e-002
  6.0250260e+005  6.7442426e+006  2.3570000e+003  1.0555380e+001  2.0656505e+002 -8.3333333e-002
  6.0253260e+005  6.7442426e+006  2.3550000e+003  9.4448839e+000  2.0206790e+002 -7.6388889e-002
  6.0256260e+005  6.7442426e+006  2.3530000e+003  7.2338447e+000  2.0319859e+002 -1.0416667e-001
  6.0259260e+005  6.7442426e+006  2.3520000e+003  4.3933774e+000  1.9252881e+002 -1.0763889e-001
  6.0262260e+005  6.7442426e+006  2.3520000e+003  3.1368966e+000  1.7125384e+002 -7.9861111e-002
  6.0295260e+005  6.7442426e+006  2.5370000e+003  1.8026290e+001  1.7706433e+002  1.2500000e-001
  6.0298260e+005  6.7442426e+006  2.5380000e+003  1.8868801e+001  1.8139718e+002  1.3888889e-001
  6.0301260e+005  6.7442426e+006  2.5370000e+003  1.8682575e+001  1.8353229e+002  9.0277778e-002
  6.0304260e+005  6.7442426e+006  2.5370000e+003  1.6481519e+001  1.7919307e+002  6.9444444e-002
  6.0307260e+005  6.7442426e+006  2.5370000e+003  1.3362201e+001  1.7899491e+002  1.4583333e-001
  6.0310260e+005  6.7442426e+006  2.5370000e+003  1.0555380e+001  1.9030485e+002  9.0277778e-002
  6.0313260e+005  6.7442426e+006  2.5350000e+003  8.8425083e+000  1.8769605e+002 -6.9444444e-003
  6.0316260e+005  6.7442426e+006  2.5360000e+003  8.7924132e+000  1.8463546e+002  2.0833333e-002
  6.0319260e+005  6.7442426e+006  2.5340000e+003  8.5437262e+000  1.8317983e+002 -6.9444444e-002
  6.0322260e+005  6.7442426e+006  2.5350000e+003  8.2804300e+000  1.5637062e+002 -2.1527778e-001
  6.0325260e+005  6.7442426e+006  2.5380000e+003  1.0539891e+001  1.2404594e+002 -2.6736111e-001
  6.0328260e+005  6.7442426e+006  2.5450000e+003  1.5718876e+001  1.0413911e+002 -1.7361111e-001
  6.0331260e+005  6.7442426e+006  2.5570000e+003  2.0809719e+001  7.4744881e+001 -3.6805556e-001
  6.0010260e+005  6.7442726e+006  2.9320000e+003  1.8053903e+001  3.5560129e+002 -2.0138889e-001
  6.0013260e+005  6.7442726e+006  2.9310000e+003  1.5599614e+001  3.5914490e+002  1.7361111e-001
  6.0016260e+005  6.7442726e+006  2.9300000e+003  2.0488453e+001  3.5295423e+002  3.8888889e-001
  6.0019260e+005  6.7442726e+006  2.9280000e+003  2.6737618e+001  3.3916663e+002  4.9305556e-001
  6.0022260e+005  6.7442726e+006  2.9190000e+003  3.2222543e+001  3.2851657e+002  3.8888889e-001
  6.0025260e+005  6.7442726e+006  2.9080000e+003  3.5447169e+001  3.2165443e+002  2.2222222e-001
  6.0028260e+005  6.7442726e+006  2.8930000e+003  3.7079032e+001  3.1857633e+002  2.7777778e-002
